ply
format ascii 1.0
element vertex 713
property float x
property float y
property float z
property uchar red
property uchar green
property uchar blue
end_header
3.0203482187511295 0.20682103560979406 7.357932521228571 36 41 60
2.3143747957231864 0.9969182269971645 6.498683323367361 109 103 131
1.9382332272522824 -1.3482602376917077 6.287846021166185 138 156 178
-0.05872061826447002 -0.2466460456355994 3.8596123089943855 25 24 29
3.984224199947294 0.5973770615487315 8.4927762119955 51 53 78
3.148046443210113 1.174230480746021 7.247707921532952 120 136 159
1.375559927879586 -0.7432093240018279 5.5877172885052415 66 68 91
2.6566120932025923 0.011995038325002557 6.903498303557889 130 149 181
0.7902323009494328 0.04298910561352134 4.783106001547207 119 118 134
-0.44524091422746265 -0.12702603761150477 4.426334551602196 36 28 39
0.9832881371157566 0.6757798481238718 4.937581711303707 67 77 130
2.002361499592278 0.8767542692186424 6.562095604455114 85 76 93
2.053515292711272 -0.9352516003409119 6.39857250801953 127 122 145
9.007065327674383 2.5152658114707775 17.031161053938735 126 149 190
3.693944609920364 -0.7899901106635367 8.434516948715574 44 45 75
2.0772293790439202 -1.3803278425282868 6.498646874490071 152 163 191
5.777022953436001 -1.2345304010166471 12.129665789399871 201 200 208
2.053515292711272 -0.9352516003409119 6.39857250801953 127 122 145
2.3967222490418547 1.1974905821677968 6.060271447729509 97 108 140
1.8820082355614063 -0.9741171242294301 6.214832633329186 104 104 130
0.7173250056062868 0.7750649003438342 4.5902312229907265 61 75 110
5.777022953436001 -1.2345304010166471 12.129665789399871 201 200 208
2.7079251317829045 1.2432181779147218 6.411636915063993 135 148 183
2.475151293635008 0.685137060310503 6.632764660844959 86 92 116
2.472109394949978 0.17017793938871076 6.764365569794414 96 92 115
3.069338666810342 1.1117876523911558 7.249764913290274 123 120 141
0.791319543249227 0.9294480782901616 4.629978892989818 54 52 74
-0.03080067385324237 -0.4140860735257305 3.954596222675539 178 176 200
2.264419425867638 -0.01724385832921005 6.730387442571051 34 33 47
2.522474058514385 0.6676624102866833 6.671422803867039 62 69 98
-0.6211618870915552 0.11452091591365247 4.085390193658869 97 113 149
2.27546299078548 1.0657030358649315 6.515229902163415 52 50 64
9.456283511736752 2.6510074370567933 17.74493245984735 77 86 117
1.2784414804743967 0.7889342184179298 5.264043933239095 171 183 221
0.7346586406554692 -0.20502298759292836 4.792942713055616 130 125 148
1.939606812981984 -0.9695977407691967 6.279137242355896 115 109 137
2.4745503270185236 1.0216871650120625 6.52610831789311 150 144 172
0.8680608425982853 0.20726639840483838 4.878462427930348 146 148 173
-0.5602285464817485 -0.07159502294584555 4.260772965711191 139 148 179
0.21352651118825522 -0.8413285990839615 4.2953457736519125 121 103 127
2.489462853710424 0.8410547876519027 6.553057115472498 120 123 138
2.3443810782654015 -0.6298902594368231 6.700649887063356 33 29 46
0.6961634712616257 -0.16321148065828361 4.803472067796028 38 36 49
1.2813515507462128 -0.03565449076054669 5.346604470273018 83 91 114
9.018716543436804 2.4789983609116857 17.064259053662003 71 82 127
2.4570932677617305 0.7003996013002317 6.6867115713942455 57 54 73
3.4701163398201835 -0.2744122178669245 7.9632474059017415 32 27 33
1.31191039658691 0.7502265401672654 5.28975920020814 126 107 129
-0.9823572022990407 0.4628669278190729 3.5555664212260814 44 65 110
2.2810787135469655 1.2477306987462506 5.602158163364962 81 90 121
1.4827762593582072 1.0435192138933729 5.193510830441769 133 145 187
-0.5105706981705456 0.31218617630125134 4.232077126168671 102 88 113
3.5813063276560557 0.9145552085973018 8.292417282159395 159 164 194
6.797941896545758 2.3257291159433917 13.521883431866282 42 41 55
2.957092896818275 0.1855626652753106 7.3474110518489315 171 183 223
1.2348412774980313 0.06593897294571732 5.342818730398462 160 173 208
3.7339160732613603 -1.6249000491027321 8.417571132429536 43 35 56
2.099494627026395 -0.8740067790278188 6.468110277230892 94 92 114
-0.07919391884713975 -0.41735216463490493 3.8526529904021096 122 109 127
-0.9283633322481047 0.46122231236436234 3.6050939178302612 150 174 212
-0.25454139532225345 -0.8014246104812158 3.978119139249746 110 115 144
2.375844902184506 -0.019189417067954916 6.744906263210463 55 52 69
1.8449292714662082 -0.9635266647420838 6.162119623517508 38 34 49
3.5195372572120904 -0.9482513446391262 8.038379196707034 160 177 203
3.3790447369845027 -0.2929874288344982 7.822210935417725 142 138 161
2.099428060028738 0.013699344050333719 6.655400363455798 108 102 130
4.007773810205774 1.1585943232831974 9.05441749380953 57 61 109
0.7580918261195664 0.15398106924435634 4.791601793518942 49 47 60
-0.03472467519665297 0.8528612039928294 3.708684234118866 230 235 254
2.878194535109029 1.2944448071623869 6.746172729173405 77 87 112
2.176742624846235 -1.1627153128634147 6.597768259728294 75 73 95
2.0815292738800397 0.167535444778713 6.65289030128152 45 40 63
1.2907540393338197 -0.6762571944794665 5.48983764396729 79 91 129
0.0198508074642621 -0.5760331551744966 4.039606559643134 155 141 166
2.1871758464402222 0.041021399327651864 6.68405875363255 29 28 36
0.21301598450649142 0.8667831601855948 4.821471365138149 51 52 72
-0.01824950391776687 -0.29560401164446115 3.954426721189316 148 141 157
-0.6611190214663799 -0.5343359966276094 4.177848119573331 35 48 80
-0.6139680325455028 0.8047379305027714 3.9476094474983996 118 150 199
3.112109065168956 1.1983521785535476 7.238315938654102 99 104 110
3.039291336887391 0.16895931318786733 7.346575798580732 78 95 115
2.4023929264878823 0.9158388812191881 6.567249900650283 81 72 93
2.313563530746595 0.20013592959886597 6.706054345047194 116 132 165
-0.847382927239914 0.5857293444752386 3.70394063404265 93 91 102
3.9766773216855626 1.2213269012615928 8.892280189101943 110 116 166
-0.4424784538343412 -0.14265409648373076 4.4291161084075945 81 79 100
3.7890120983560793 1.3995211241636174 8.298956371199932 34 34 42
-0.08584428263594125 -0.25267563079274 3.827336737550361 24 23 28
2.4003731747097996 0.32589265980836846 6.677906941029059 102 93 120
0.9106742688074295 -0.1253160149020275 4.947459659085811 49 52 69
2.646423535826629 -0.011604002061062574 6.96751040713998 43 48 70
1.8382840202449915 -1.2523617800740963 6.171105465003752 162 176 202
-0.14333032403400844 -0.15870467378835743 3.789216525414767 128 119 140
3.148046443210113 1.174230480746021 7.247707921532952 120 136 159
3.6739948266646416 -1.1341954986124831 8.258787977415018 38 38 62
2.2065192198332126 0.8111287573084949 6.573392948385419 58 46 70
-0.4434014623498041 -0.17197638190062584 4.390218987475776 101 99 120
-0.6661708673896554 0.1174948546016681 4.082486589846767 66 77 107
0.31946005523091764 -0.9958760841902147 4.397469972053957 120 111 132
2.1003577023138797 0.8660769620300982 6.58734205191332 34 30 44
1.4892194067012439 1.1018160628670606 4.889356483378582 118 130 172
3.606656450193811 -0.7608855600318831 8.106743788319664 30 29 47
-0.5125411137222189 -0.21864926853481764 4.312034651264929 111 107 132
8.02419605611742 1.516313252079761 15.336326949967125 27 35 54
1.5304830799913238 -1.0638067054178657 5.829976903386893 166 174 213
7.85221240978247 1.8998888919028647 15.254988560603449 36 44 67
0.7681538794216588 -0.2644409985794287 4.826970328874167 134 130 153
3.807635955478872 1.18950914369826 8.235109125330904 39 42 47
1.2617091274110437 -0.25940024752560664 5.342352267213496 88 96 117
2.224837542068004 0.3489799210855429 6.678520450251326 63 51 75
1.2375122099855564 -0.21429426717318167 5.348226596450975 23 26 33
2.543382583951994 -1.2117557342509098 6.987975519456323 132 133 179
0.9471707172934939 0.7214895129069391 4.8973493943448565 56 54 104
2.1869201258244075 0.8235605522498092 6.587262547206511 108 118 145
2.7686508100173084 1.253352128551964 6.762891788213326 94 111 139
3.5429839924169944 -0.823185619835637 8.04157205474337 102 104 129
3.4489141694288787 -1.0630281023447317 7.971024514358821 100 113 132
9.367681216768661 2.7632867472426175 17.24856937559067 64 77 130
-0.6304217439862199 0.3910946568504856 4.039785670942625 149 174 214
2.538585665456029 0.8961018466289422 6.513858861900589 158 183 213
2.8554332750928486 1.369138453581351 6.185670737384969 117 127 162
0.8042108005160953 -0.22525207666089012 4.845842803039683 42 40 53
3.4845196721795912 -0.3750059204561099 7.91687676453973 122 113 134
2.5682769054154924 0.004492729693903219 6.845115079342 28 24 47
3.988693170615645 1.5894045683744638 8.152427905529922 105 96 117
0.7770567377976382 0.3740227110864999 4.748037236972632 122 126 151
3.0287645314558422 0.208225288368269 7.329576628314874 79 88 105
6.329254643746792 -1.1381250682530275 12.390917554509254 193 191 202
0.96672645118367 0.6389193894184703 4.920635789897569 244 244 252
1.8834281259952954 -0.9482746783845896 6.225757128471758 96 92 115
0.9682104451081428 0.7293843042439632 4.915909593186247 131 120 160
3.2973008504831576 1.4586358933072303 6.808151784507547 59 85 74
1.2200471252073135 -0.12815132195702553 5.339711371498983 81 94 128
2.18912599169897 0.8767288768063265 6.528898625050115 103 87 113
2.5415450550586245 0.8901815063616116 6.620294282356936 165 180 209
0.35741188008307284 0.7655729403068722 5.062477717219706 80 84 109
0.780103932099194 0.8038899808744266 4.640124460355094 114 122 101
-0.07578050624967587 0.4835753569902602 3.837880125895488 26 32 54
-0.9748768020515579 -0.4567513514806015 3.829942592351697 98 96 118
-0.04990870169373678 -0.9166442287924028 4.004231109436623 173 178 208
1.9343164038869 -0.9393175124037014 6.276832973224833 103 91 115
3.395975889968252 -1.0726886932019977 7.9162413730505765 97 96 112
1.6087294531321106 -0.7646223177172913 5.99698411159463 127 122 152
2.985911923779272 -1.245472136132421 7.504398731489949 176 188 226
3.067869583455037 0.5981754554652201 7.359335150533983 98 103 133
1.2616273285733688 0.14608449340559146 5.316465046355989 38 43 63
9.490199018815801 2.7491104550316083 17.779458919931237 49 46 89
2.1903273994803714 -1.6380926657230477 6.617920801361554 158 175 205
3.6153820678409243 -1.6974056428860222 8.2888172297777 151 154 187
2.496838365157053 1.0561050347298284 6.5650389697574845 71 69 93
1.6689842534528876 -1.068748926807588 5.930372394179317 111 115 142
3.6912880094728524 1.2266743798346116 8.184130218936275 34 24 51
1.674072296131222 1.1598298518459724 4.9670736928087855 78 87 118
0.12711669725229657 -0.045642515000717136 5.081280823532107 72 71 87
0.8686311660581213 -0.112562121205641 4.903170399179903 103 114 136
0.004031514211298856 0.889965231729281 3.7387347837512452 120 96 109
3.5130525873583296 -0.9012107285776451 8.02672182705089 114 118 143
0.19434926590008875 -0.03918070979465255 5.120224759133081 69 71 84
2.0828031464903125 0.08546528159678177 6.668005579768848 100 93 124
-1.0131588491095402 0.811392034039932 3.5588100512517182 101 106 126
1.28218504121658 0.0024969536852142236 5.36794424367073 153 169 203
1.308643173342482 -0.8990710658491916 5.539559614436048 133 138 178
0.37379008841207245 -1.0320583858424053 4.463933898278833 110 96 119
3.3266014808637645 -1.8047651892966774 7.97864958882087 102 97 117
-1.0131588491095402 0.811392034039932 3.5588100512517182 101 106 126
0.12725381017586254 -0.7625651742482431 4.186162328754278 149 137 159
3.693944609920364 -0.7899901106635367 8.434516948715574 44 45 75
2.9823639255493415 1.029977456764233 7.11827897032866 108 117 176
0.8050687352244119 0.967858911158282 4.6341348796417225 123 129 151
-0.10922531596803471 -0.23812404628408781 3.817412390227783 134 126 149
4.026086540987034 0.5705870651663303 8.66308456866251 41 37 51
2.979494125073812 -1.0833425118281677 7.471828686031221 178 190 232
5.428816931393692 -2.868037024865419 11.631174008230328 74 68 128
2.5731390486815795 0.16161544217177715 6.836954203370224 100 102 125
2.1212371222499695 -1.1502230179120931 6.493826031507978 53 51 73
0.38710825346617617 -0.999205351729325 4.477610261833228 36 32 47
3.8609690612069736 1.1132477132930267 8.898087970120535 38 45 73
4.101248498516548 0.9126003428914005 8.626668345611932 49 43 77
3.948857017225493 1.154908066876081 8.824165373587622 93 96 149
3.7157814861116107 1.2275599988861912 7.970975585690488 71 91 118
0.44817516619602216 -1.0152736241533684 4.57625502340033 146 128 154
0.3823064651806857 -0.940694460282639 4.471853754471856 50 39 56
2.386656978078797 0.04909711187698522 6.725414560561584 24 22 33
0.016098141072633108 -0.6172832952638968 4.038189407253413 144 129 152
0.7377456133728743 -0.2068306902896549 4.787234778500624 126 114 138
2.0230623526092453 0.8569820597888832 6.568321197332648 32 26 36
1.7483572858963254 1.1944533432259037 5.007702379200401 49 72 62
2.404073075888725 0.8811844518899047 6.575751354421125 76 74 96
1.8242299440642666 -1.4448699433716732 6.224112966508718 115 117 156
2.650307986028038 0.019178597051009674 6.892963530168622 126 145 177
0.9283098690211941 -0.14515590249799798 4.932301231426999 169 179 215
3.5007991818610917 -1.716887144843222 8.199032244109056 149 148 182
0.7830738061084869 0.8969519499382989 4.620832174199315 107 109 130
2.9655925411014854 -0.3406662545891827 7.343870773684985 142 141 183
-0.5325761606465576 0.12221264093848684 4.256447725872397 147 156 187
2.294021295188774 -0.679759232891701 6.671269231718523 102 100 124
3.0369157941208846 0.663876776215814 7.276588075602819 129 124 154
-0.46072933157682355 -0.14639821741609413 4.391277058833378 88 85 106
1.8242299440642666 -1.4448699433716732 6.224112966508718 115 117 156
3.53369908581925 -1.0622398292215043 8.054213587897141 39 39 63
0.7891504006871474 0.10097241978897112 4.7963603585382115 104 100 125
2.3143997364562114 -0.7224769345281057 6.660978787268587 73 60 90
0.9977570552925128 1.140959474611369 4.834858814617165 63 65 86
2.913290975264604 1.3583164510661208 6.145887321211392 39 59 50
3.4753035811124873 -0.4445754477708586 7.935381008173087 124 112 136
2.6875952639435434 1.3179995029500011 6.075576804196966 86 97 127
-0.2650410023522175 -0.8698359474448599 4.001860428817716 66 57 76
1.7782513379811877 -0.939508418899263 6.100139026083237 89 84 107
2.466461058811455 0.5845214372081529 6.691583131512756 96 91 114
3.44865060559877 -0.4206395411688304 7.879077401246164 53 43 67
1.663350579910836 -0.9084788750835754 5.947186501643847 118 118 144
2.1751432330734164 1.0054999108671763 6.442077334594977 95 93 117
0.9281569532431126 1.0520652300050568 4.769716557364524 39 47 68
3.296731080842143 1.0800033905651305 7.673315617403891 51 53 74
7.649448655041109 1.794220389646588 15.49617700517411 100 105 147
2.7307547876245657 1.0486240836219745 6.800530778188894 173 180 209
-1.0836709150174169 -0.6988653809782007 3.8963332669493735 77 77 101
1.663350579910836 -0.9084788750835754 5.947186501643847 118 118 144
0.5082301681656951 -0.7856223119694555 4.608269774223346 155 156 176
0.7748039450361347 0.19865157613829598 4.764584906709618 129 122 138
-0.6556456589700317 -0.04002725994845667 4.09646128011057 35 51 76
0.3024432917019269 -0.9496262259515276 4.384798963976816 45 38 54
6.350651865962766 -0.20938294599127347 12.381782581084222 72 99 142
3.9396003756471027 1.3634019773323718 8.107955876129179 69 75 107
1.367237029344313 -0.8680302578662485 5.61099149050825 162 173 205
3.4753035811124873 -0.4445754477708586 7.935381008173087 124 112 136
3.914918366492865 0.2832671895900456 8.265586213093584 40 38 59
2.5682769054154924 0.004492729693903219 6.845115079342 28 24 47
5.793758412021482 -1.6286864519689999 11.13615381905544 217 217 229
0.9477708407226656 -0.5647629499027872 5.080643323637094 139 147 184
-0.6427212702884783 0.07514776293577234 4.084356772746061 155 172 215
2.50119962851063 1.1773723683381772 6.369599440710951 134 153 186
2.923787157451657 -0.5247581923020661 7.281255095369608 132 145 179
0.9601788748246184 -0.3416190681173161 5.067045961616779 137 146 185
2.361911190658962 0.18845738938140297 6.709877373476517 59 48 65
-0.9342952988181732 0.2297123628287631 3.7638218382697888 111 92 122
9.512700813278663 2.796198935646987 17.742342246187164 38 45 73
0.25867677256925387 -0.8435809886931035 4.347891833931848 65 50 71
2.497100632327646 0.6636903536572054 6.664033073343933 98 103 133
2.425947116750448 -0.33975167502944836 6.774973341543969 56 49 65
2.894377139878464 1.3750886025503917 6.2749712746639315 47 66 62
2.0813826164930043 -1.18707020825367 6.46790800223717 95 95 129
-0.10380551465503045 -0.2792983516537444 3.80646881928291 102 99 118
1.8382750916466983 -1.1741734074708128 6.152804718614697 148 168 193
0.8378186615939847 0.655632499196185 4.779574160920879 129 132 163
6.211349682815889 -0.13872709835362196 11.919967082339182 22 25 40
1.6156998944912497 -0.8411013984032931 5.93668422703394 135 126 155
2.454996541473061 0.4928476031533244 6.669603992861629 92 93 114
1.7051090164091522 1.0758178775932399 4.106521217232521 64 65 109
3.118755731955999 -1.1657286004176552 7.600654328788044 117 125 146
2.215161517319 0.8670180431841847 6.487875892319503 72 81 110
2.7307547876245657 1.0486240836219745 6.800530778188894 173 180 209
3.112744174745832 1.1762004665119299 7.231851513499071 40 39 55
-0.03507636602778302 0.8733306048171031 3.708155311198181 234 237 254
1.867336928114158 -0.5767117861042403 6.551119898298115 116 120 149
-0.11386770460535811 -0.2567142161816148 3.79860203034279 22 21 29
1.7688424819655562 -0.958455280518995 6.082884069580373 108 112 139
0.7828662518496018 0.5452188871507445 4.7213678258462775 122 118 141
2.2967747246422783 -0.6314357874650793 6.653917875579838 50 42 53
2.3990024885002885 0.6577784422849201 6.624761346075914 103 100 131
2.159119665573605 -0.8450254903231738 6.492726120496423 37 32 54
5.969027784338343 -2.0477643474651854 11.49329830831365 254 254 254
-0.6425470329702407 0.8245173085469428 3.9549324486176953 18 20 33
1.7688424819655562 -0.958455280518995 6.082884069580373 108 112 139
6.901258604458861 -0.3053614083625481 13.227121527170288 30 37 66
1.7421656290415226 -1.1419180917368867 6.022491189069973 126 121 151
1.334387794048518 0.6690234378448038 5.335471407133912 33 32 40
3.965893134757881 -0.0015995623551450274 8.378796390233996 95 102 130
9.522178930414755 2.683881170639045 17.684354328200236 64 77 111
-0.757022777772147 0.9784361482317474 3.8259843266571476 79 85 109
-0.9404768557644906 0.4855608638586486 3.5912268386241806 147 170 211
2.6246063407872033 1.2517132209280586 6.276576933567097 134 146 186
-0.033540907355452565 0.900932641665975 3.7090238113502445 240 243 250
-0.03507636602778302 0.8733306048171031 3.708155311198181 234 237 254
1.6502683307742962 -0.681225049832642 6.2038838946967525 40 37 44
0.4887559855948971 -1.0869889890608921 4.623916693477544 62 51 67
0.3823064651806857 -0.940694460282639 4.471853754471856 50 39 56
2.336451131194495 1.2872474265915772 5.6181018088408265 119 125 157
2.313563530746595 0.20013592959886597 6.706054345047194 116 132 165
1.3157389772393857 -0.019037967868886452 5.435307908328135 32 31 37
-0.757022777772147 0.9784361482317474 3.8259843266571476 79 85 109
3.8330626680842594 1.138282665973913 8.712500042571236 108 122 161
1.992770940400553 -0.9251739399350516 6.3468241617249275 99 97 121
0.2245874370712195 0.9754188739041569 4.19250151697653 157 171 200
2.5175112945698475 1.2162405014323845 6.181075934340106 93 106 138
-0.8620644804430755 0.5576197510702707 3.708995900256394 98 94 95
3.8361966993097742 1.5047601342062618 7.929945461688146 127 137 162
3.914918366492865 0.2832671895900456 8.265586213093584 40 38 59
1.7972006597413364 -1.5354417669268343 6.186647803995288 47 46 80
0.7501496752351438 -0.23668381849499284 4.809449929886246 140 132 153
1.78419178884652 -1.0329495777117619 6.101849747545856 130 125 148
1.7786846287057947 -0.30430387589793 6.734182237666105 30 29 37
1.3024603397856547 -0.21210216393764214 5.418126714944495 26 26 36
4.254878545598257 0.35745126547134554 9.727518344080641 80 80 104
2.209374806790872 0.885915776686827 6.517453035022774 34 28 54
1.9571059813701268 -0.8068578992462931 6.414748641969615 96 92 119
0.9696185688529136 0.6855032153592324 4.921678294315904 231 238 255
3.163025145195872 -0.47816889476693897 7.604781685692538 130 134 172
1.1144608943575531 -0.8331605293362777 5.301360980697319 195 211 245
2.4363961768983895 1.2432257402860198 5.953540949663872 90 100 135
2.4927983205814512 1.1753313867637034 6.486038929632949 74 70 97
1.7306611662479832 -0.348198829427279 6.632209291999294 22 20 33
1.4890493429472136 1.1396993139695308 4.724301785951038 115 128 162
2.1241523408486813 0.8488171292598459 6.508973391902997 37 30 38
2.0846030923423458 1.2188452392307738 5.392626441982679 72 83 115
0.469540834411775 0.9230481362244721 4.9100648067269335 30 28 41
-0.10380551465503045 -0.2792983516537444 3.80646881928291 102 99 118
3.039291336887391 0.16895931318786733 7.346575798580732 78 95 115
1.5652879651538887 -0.8468487047485664 5.838488936152825 79 65 98
0.35708585801166187 -1.0186379513707748 4.4519086520808315 71 68 79
0.7688231891371468 -0.32484916999792424 4.838183439402573 116 109 140
2.410748625694941 1.1348208550381165 6.42643404937263 134 148 183
0.3655708482331012 -0.9462547386932612 4.468663507271577 131 108 126
4.066880129038562 1.1940757630701004 9.234796627017957 160 187 216
1.6307859090582364 -0.8821696615820044 5.940645024574705 126 122 145
1.3024603397856547 -0.21210216393764214 5.418126714944495 26 26 36
3.683007503005748 1.2427855847690192 8.244643238593747 156 171 202
2.1924459535289804 0.8679743631797399 6.636371605820232 46 35 51
2.1900241460263907 0.19919379216766905 6.6879713087073425 114 127 159
3.0285291412550515 0.23892181619587374 7.321201428607498 100 112 136
-0.5414376412350931 -0.6299577636959561 4.202501786046532 97 106 139
-0.4650381709279222 -0.16365833350173464 4.362103637976196 34 27 35
1.7713422101552756 -0.6419843995672619 6.46864466490199 109 104 136
2.5631563270925186 1.3040490226754877 5.746051142423344 60 88 74
3.9499855624164164 0.34952417923269535 8.329423349788886 37 40 57
2.9523187670617945 1.3528743299050359 6.059658960322217 92 106 119
2.4905279079838594 1.1709927730718355 6.53158010289933 144 134 159
-0.5334716892204041 -0.019970789389349264 4.278097342932045 136 145 176
6.261352010992922 -2.414833005879368 12.543486496024705 253 254 255
1.7130291951758414 -0.9367486722623685 6.0080768188953035 119 109 134
2.2170705676702678 0.789601089029147 6.594316451764195 19 24 44
3.123787592832471 1.1429966959972648 7.329978600339554 42 39 60
-0.136061681153502 -0.24166265493206712 3.7743051704844417 119 114 134
2.4000312025058324 -1.2956103034118427 6.955876058122168 183 195 233
5.669882192251404 -1.1779666753557563 12.082800741429168 253 253 253
0.7594134393372811 -0.21200040023053074 4.814712207660504 65 51 77
2.224853837108668 0.8422161837187083 6.442605226779356 36 28 41
5.880562859898765 -0.9001171566414111 11.731041100085658 205 204 246
-0.44524091422746265 -0.12702603761150477 4.426334551602196 36 28 39
2.081765898767191 -1.5146348743408988 6.49881550874713 126 143 169
1.533184145331586 -0.8461143955412688 5.78198728752956 82 68 101
1.6156998944912497 -0.8411013984032931 5.93668422703394 135 126 155
2.481473207086491 0.4451095176604174 6.688023570553667 121 122 143
2.3195917758438345 0.17867974581634558 6.63552003471644 45 35 60
5.9369076709549935 -3.27640630130843 11.671707714354302 92 97 161
3.6584783570852033 1.2156441469434816 8.106855880381808 34 24 51
-0.9583535129668809 0.8441081429462651 3.6130059467280646 43 44 65
2.0545573897681373 -1.5492831577030355 6.522362523444827 22 24 37
2.043040422095217 -1.1652203444626852 6.381849343796724 142 162 187
-0.8524891056572154 0.3370587438526117 3.694300709486195 145 156 184
3.5068609743921564 1.553836177619476 7.632693771273385 171 183 209
0.37080804770196685 0.5972200625431271 4.788000266266039 33 40 66
2.4210086504426456 0.9710731207819397 6.529105924625042 45 36 53
-0.4702112303272009 0.5205946712389727 4.259611695781348 58 49 68
1.1991641777548772 1.1282291971240297 4.981497251769077 80 98 120
2.732835528873734 1.072924954158825 6.682108314332569 23 32 63
2.7488475088867173 1.0677514254496139 6.704348647789018 125 147 171
1.8104653189133202 -0.0409060117185877 6.695729348069094 37 33 50
0.4992619497506947 1.0089422944833393 4.50810920146386 112 128 161
1.2432418605971767 0.834626525213563 5.073111612546295 31 37 63
5.806102514432814 -2.6082504205479475 11.165515984408394 241 242 247
0.8076585849395277 1.030723282583857 4.630944161924471 75 73 97
-0.4702112303272009 0.5205946712389727 4.259611695781348 58 49 68
2.4570320498819838 1.1785041365502515 6.366681420681952 138 151 195
6.311827450778681 -0.3760343972632287 11.874897487748665 76 94 142
2.1698822486287344 1.2427529936143322 5.5104159419527825 68 82 111
1.4568145223716233 -0.7331882155897513 5.678946147796585 82 67 100
-0.5154787183209211 -0.0617531441233344 4.260057310856437 94 80 105
0.7837912124701287 0.2854582089778982 4.763300285355658 147 143 166
10.69698442796884 2.763307613955614 22.20398452347949 60 64 101
0.021658194427960617 -0.2579770035410968 3.9529482414720656 95 95 119
3.0157397670089994 0.7311112154537153 7.314949324713482 177 190 225
2.426173948629287 1.0136903913811088 6.537144823923067 50 42 57
-0.031036330054690312 -0.24185333756675495 3.890091431209032 24 23 28
0.6704343418173766 0.7443040491532703 4.659271013579411 61 85 129
6.783740459148285 -0.03249639376551328 13.126099495056033 14 21 31
0.5769175846224983 -0.6258032669790359 4.737449321298755 36 33 42
1.3012269960473366 0.29960093767240525 5.332180880379644 36 33 44
1.5982849396370828 -0.8576369661269264 5.873135194558937 47 39 60
3.191452221358702 -1.2679598502048088 7.83409513409789 66 44 80
1.2526218902528254 1.079223418212161 5.029631693771403 80 104 142
3.92443374388369 0.4538558344715407 8.33586319117189 122 117 137
-0.9583535129668809 0.8441081429462651 3.6130059467280646 43 44 65
1.9343691087890116 0.7878560897015017 6.601401268501913 110 105 135
4.033437146483684 -0.03082916645536485 8.51175743782457 36 32 55
1.7713422101552756 -0.6419843995672619 6.46864466490199 109 104 136
1.5028225050133763 -0.8222690900942743 5.756161209501044 146 126 154
-0.00416384631674277 -0.2372021373326723 3.9221412547616152 27 26 32
0.8378186615939847 0.655632499196185 4.779574160920879 129 132 163
8.897484996379818 2.504071844918046 16.858817374543246 88 105 148
-0.023752373288772013 -0.47011385089483954 3.9786879384605927 152 138 163
1.7787634070973775 -1.5279207502589436 6.169760308921056 169 175 201
-0.033540907355452565 0.900932641665975 3.7090238113502445 240 243 250
2.3983885157531466 0.03384790875273913 6.653986275126218 128 126 147
1.1547776377128527 0.1184717820702638 5.187934409164481 126 133 175
-0.5115042976978003 0.3672982193521035 4.224606447381902 106 96 121
-0.6697980722679779 0.6666405379554269 3.9878218675970927 36 40 51
2.5160660735420772 0.8632527134259168 6.644402573881934 35 33 47
3.1816163648880686 0.10311779026406703 7.588195273845274 116 123 152
2.453531131131762 0.45829869439625637 6.65024720628399 43 35 50
2.669771482014718 1.2464593382577098 6.573143353260563 67 74 102
1.6717452805293174 -0.651236982972193 6.329897804329377 93 87 115
4.112907709010354 1.3010026844460207 9.08945528596988 159 174 205
1.7922361221579626 -0.22707241363652067 6.734635778585227 35 32 43
-0.15208640403407114 -0.16573288687134724 3.7918458265597734 57 53 76
0.05871146324452558 -0.7625535096098188 4.094676509788948 138 124 149
1.0947435423436478 1.1585433292501957 4.889311950318115 48 64 63
1.7138544650887935 -0.06061803909001721 6.598712643355506 37 35 48
0.5640112615494154 1.0461211083699637 4.407153033882647 129 148 190
-0.3499368459516578 -0.6516640329153572 4.04358497736302 108 114 140
2.1311284093607124 1.124955973391939 4.400926265874372 79 82 125
0.993538583348346 0.7295828353130384 4.942820476252799 56 51 109
-0.59700971564869 0.8900716919657412 3.9519606987345934 18 21 36
1.9482886733872595 -1.3325996128038364 6.297467817735694 153 170 196
1.7025352438393875 -0.290548410917787 6.616000282787748 20 24 35
-0.0034877152066106493 0.9244620989485167 3.7328610241726348 97 84 112
2.30352746800718 0.7340333682111798 6.505872467434812 62 59 86
0.8016728813865934 -0.11756207644134463 4.8389748273099915 119 126 154
1.2604119854937819 -0.18388457867801464 5.356019484655397 22 29 39
0.24666474718684017 -0.8774847352513573 4.292802360060118 123 106 122
1.8257172828147523 -0.1096703862538294 6.705662440542042 116 107 138
0.7504022819590419 -0.2519388328269705 4.818912996492159 148 146 168
3.2114787918656265 -2.0237431845634504 7.72983387486135 253 253 253
2.0008953483262744 -1.0080811095572637 6.340506838446457 143 142 176
-0.9148116207746967 0.4053971925199042 3.645681353763442 172 196 232
1.7782513379811877 -0.939508418899263 6.100139026083237 89 84 107
2.013902541397589 1.2398630323036748 5.282619965004096 121 126 155
2.1025112862018323 -1.5774369030304636 6.494047261612829 26 33 49
-0.10026368709665492 -0.25517902470886566 3.8129021739505298 128 124 139
0.3086541317564622 -0.9922930501804791 4.396355540384633 47 44 63
1.2632157802369852 -0.2429564988254915 5.325993429513037 72 80 103
0.6704343418173766 0.7443040491532703 4.659271013579411 61 85 129
6.255962720327507 -0.774361702932014 12.48363225251812 250 249 255
3.543999460823369 -0.5976860734429341 7.987113868558728 99 94 117
1.323318665526614 -0.7165132171804599 5.574113629226415 152 163 208
0.382113514180678 -0.9616979061248931 4.4732271204683 39 26 43
3.216219789955929 1.4324637732842744 7.390154553554347 133 146 178
7.871344704519834 1.749357839269625 15.606344879732696 28 27 58
2.103162242919135 -0.8802669888667746 6.428765646501531 35 31 48
0.3999729391689336 -1.010033881413231 4.48810842368103 123 114 135
3.854133778838722 1.5996714159248033 7.843766185342753 42 73 57
0.26454219251516914 -1.045710978387914 4.345457812779567 57 49 70
1.3304888911308546 0.24440089478645577 5.375490566129809 115 128 160
3.4183947569299473 -0.9981198220377498 7.865563680087382 163 170 199
5.850611756086777 -2.5407222521472517 11.44987939605362 198 198 248
-0.8974632462446381 0.5136874428185713 3.651141049868399 78 158 221
1.683664952302367 -0.9166475756957804 5.960034714584801 39 31 52
2.3000207284368415 -0.6928533453643502 6.652087347606993 31 28 45
3.4197983825247342 -1.109846436820424 7.914521594964257 104 107 122
1.2067389881109813 1.1135889632454918 5.073534213996089 92 104 130
0.5293199584885356 0.9827159130374888 4.815638465638007 29 28 42
-0.994523592874467 0.45306593722562566 3.552095621134568 147 177 188
0.7353922515628047 0.7858371381276581 4.592121899483372 111 133 170
-0.011440979843308139 0.9406117002084219 3.720175799517081 37 29 86
8.897484996379818 2.504071844918046 16.858817374543246 88 105 148
2.1000629257716286 -1.1768900271014882 6.4807606318261595 141 147 173
1.9207496621002902 0.8737109475201036 6.565736339943787 105 101 124
4.281459342834056 1.1336102636888745 9.548650733034995 24 27 36
2.162780753214995 -0.8680057910810537 6.51390908441526 115 111 138
1.975714960565209 -1.1063839224854437 6.315284803094176 157 168 200
1.7270489339484836 1.1438939072919316 5.191675946872148 75 86 118
1.7994404708357867 -1.2683981236942061 6.17317871836981 41 47 71
2.2151137855697307 0.8408292428960179 6.493975460303266 75 86 114
3.5140177263250405 -1.0683801045228074 8.02574615485003 80 87 105
1.6277394952031743 -0.43389063653116794 5.391084924129375 38 35 44
0.9153554032993264 -0.14681551024091455 4.955429033754063 67 74 92
1.816925601040888 -1.2234965484315887 6.162680508776573 57 62 91
-0.8974632462446381 0.5136874428185713 3.651141049868399 78 158 221
-0.08152700406092453 -0.31201923918209373 3.8303858585897586 120 106 131
3.9605339186817035 -0.981473786058524 8.536775666197396 112 114 135
0.7875987397127606 1.1186607445215602 4.584906493482335 70 87 77
1.5673419206062316 -0.7576942811199332 5.934432488038029 104 101 132
-0.027335035518660587 -0.30277868878313907 3.9403139598455224 50 44 70
0.5914360526913011 1.0299699114647558 4.615221863015948 87 98 130
1.1617271161621405 -0.8097324985535945 5.36145408695708 129 141 181
-0.8636975385805296 0.3796772742049262 3.6808549159341126 158 180 230
6.219337264442915 -2.234372237597745 11.771591308780785 251 255 255
-0.31988853600909334 -0.47603101359356476 3.9941595278636037 80 80 108
0.551921532762703 -0.8857121972398843 4.626059432494523 96 95 113
3.670601959633543 -1.1585600130134788 8.329839833526352 142 144 165
4.122992787081428 0.6060365659417039 8.751907227275973 147 144 163
3.168459043005327 1.3915805161236252 6.294946889603363 94 118 120
7.035693314836473 2.5118935789546053 14.284802413440218 34 36 51
-0.1449825913576354 0.8909540222785617 3.5736835085723464 134 131 148
2.0453002163198035 -0.9430575852453245 6.338149984473612 99 83 110
9.3050976187334 2.5213963911424653 19.296288288581447 64 62 101
-0.7756064074172903 0.9596154169989353 3.716073717075948 64 86 136
0.2371770058348954 -0.8484942093071557 4.314328264023261 110 95 116
1.2453165176143461 0.2629540731051128 5.432412670214865 163 171 207
3.159626707621552 -1.126591894277659 7.634110518027731 87 90 105
-0.22168291473648455 -0.38463612435011696 3.8807249766287226 20 32 56
-0.9563705954081588 0.363404407689691 3.5679576838702682 158 175 229
1.557435809374673 -0.8180770591377391 5.831551467076356 47 38 55
3.085735508497304 0.22593074875179148 7.396915171468305 125 126 147
0.004168295080415626 -0.21935245426125294 3.9487480064049407 134 131 150
1.7303128948885917 -0.1430738357728387 6.604468005487093 120 111 140
4.033437146483684 -0.03082916645536485 8.51175743782457 36 32 55
0.6454893981998306 1.0659935095430924 4.513554858722827 140 158 194
0.40920879518459397 1.0620382518880744 4.235845226399823 131 146 179
2.0776404373574455 -1.1639831557383455 6.449263930668997 132 138 170
0.7333841060724944 -0.9932092418113357 4.90279586289851 121 125 163
9.768373194832401 2.6062127923982024 17.966932494102256 96 129 164
-0.4682271489792616 -0.13302273108812154 4.360149518614577 30 23 31
3.3512633547458117 -1.0298285608945308 7.981275907650038 165 175 211
2.006099838383202 -0.9380187755474134 6.334484458704614 47 37 62
3.1308463485089555 0.4348952678198449 7.5011273700018934 25 28 45
3.8609690612069736 1.1132477132930267 8.898087970120535 38 45 73
1.2458171870136943 0.990081079468662 5.070218409936755 22 31 60
3.5933148223992344 -0.384241161166435 8.049230064074568 119 109 133
4.254878545598257 0.35745126547134554 9.727518344080641 80 80 104
5.598140262466704 -1.1481078176402133 11.926755497512216 250 254 255
2.4669611180559015 0.8164033230490688 6.416884599983241 158 174 200
3.1308463485089555 0.4348952678198449 7.5011273700018934 25 28 45
-0.09940788459641973 -0.5825880749340635 3.8994453140445215 125 129 156
0.9044658303493093 -0.10996675170684989 4.935482197247441 134 149 178
-0.8613810966449484 0.5200361681241603 3.6999752938435955 70 148 214
8.99039882294911 2.8214860823012646 17.402160254520112 73 86 131
-0.08240401510526578 -0.17959316638596706 3.867171637497303 95 86 117
1.78233142685817 -1.0031884442118093 6.083642391892422 82 68 101
2.9747629287342106 -1.8788334429890663 7.559168660507211 115 113 150
2.6487131746775714 1.3409976918906994 6.0146929788786965 64 84 85
3.480613430757873 -1.1942936980005008 8.132420975366355 137 137 161
-0.027335035518660587 -0.30277868878313907 3.9403139598455224 50 44 70
3.960037014021754 1.1350420405329982 8.357928773020854 122 141 183
-0.9392904796521683 -0.8008854719329528 3.935703325728668 70 58 78
1.110373176699939 1.0968849910049079 4.978775356923382 121 125 152
0.20880060398259379 -0.9157440658557479 4.256034671919733 142 139 158
3.3494293273576616 -1.4119317145499048 7.9243415525087935 92 89 116
0.3445902292076871 0.5861808025511537 4.790427340898769 24 31 57
9.150626400287427 2.406484919390141 18.88298261454764 112 126 171
3.7890120983560793 1.3995211241636174 8.298956371199932 34 34 42
2.5631563270925186 1.3040490226754877 5.746051142423344 60 88 74
5.837968541243961 -2.3400177543089504 11.324897174203242 255 253 254
1.9272259422049958 -1.3370775304566827 6.282673570906838 49 51 89
-0.9831356581136622 0.35215494921173845 3.5597550599055188 47 46 51
3.1088544272847987 -0.26140658861902655 7.496691249962465 93 89 126
5.936182233509505 -2.1157584472159905 11.421278822416042 252 251 255
2.0372755940069043 1.2425181804109413 5.333161275544841 52 72 60
3.7745176932436135 1.2140446181220133 8.329790876250339 33 30 51
1.730394388743955 -0.9893371458300291 6.029090496245908 76 62 95
-0.8246989466460368 0.5066763943724855 3.730478467580895 103 125 175
-0.04514968396022652 -0.24575790174425896 3.8736067243555072 107 107 119
1.3291394367932237 0.26723349718455713 5.365071769810778 134 140 164
0.7903137161863018 1.0326578276946872 4.609176837562304 150 152 173
1.862089319726575 1.1476962036776108 4.671609660886793 147 156 187
2.5342190560104703 1.1857017836067476 6.542594583902614 113 114 135
4.088027873432451 1.2518423372524825 9.085206715319007 84 99 154
5.989466503742783 -2.5274414648179855 11.497787624114677 217 235 255
0.3537406762269989 -1.0635766058697584 4.442281419234293 22 20 31
10.005566578329388 0.8447237110064368 18.56621451128896 50 44 80
0.16783660080747437 0.8284382299407754 4.966551577196838 37 35 49
0.07698359201398527 0.10610791745506848 5.113338113730702 16 16 16
1.145782386766621 0.03517421772512464 5.2366871972103235 139 141 180
1.549446183784672 1.003609671930881 3.504403339957748 62 70 81
0.441164922617179 -1.0307340088837402 4.566450699736463 68 55 75
3.9888244489866875 0.4200105898511549 8.544338203834798 33 30 39
2.004381539239508 1.1396691350456913 5.630420283921161 89 102 134
-0.9472563642158424 0.7331558221683111 3.6404224374641347 34 32 53
-0.8472349987668677 0.3924836695219075 3.6960813739806193 26 34 80
3.329323623063461 -0.9289405629451702 7.84861748968149 165 176 208
1.4540213216822324 1.1506622261983428 4.691064012910335 109 114 143
0.8523776900315766 1.025085937127309 4.6707161299688 107 119 141
-0.8628241664900802 0.40663211901821755 3.68365578725451 69 70 75
6.560018040218522 -2.71239582685244 13.36065710651516 56 51 143
0.758863205629593 -0.14428254026956167 4.800735729065793 57 48 69
6.948346113282199 -0.34515001671274403 13.573719154277992 81 102 159
1.064904624557428 1.0351528680751507 3.9129993463715285 135 143 182
10.194743653888175 2.860521444950138 18.86222773901004 115 139 177
2.5295069917667723 1.0190488460433182 6.5720365573154895 167 170 201
1.500042574279304 0.6724026923810931 5.379964527988457 151 177 210
-1.02204091833246 0.9153827985764901 3.5321560712905056 45 46 67
0.7353922515628047 0.7858371381276581 4.592121899483372 111 133 170
4.841443353895264 1.3278060467734778 10.156718664039367 61 65 102
1.7878536065448336 -1.477256563827034 6.158622221163936 147 165 189
-0.06987130277898952 0.4955525573061353 3.8344564595565 121 122 143
1.7319922906731344 -1.0749509522483436 5.988080131717274 132 143 171
3.060087800271212 1.3767748754517166 7.10040245802022 139 155 171
-0.6274137163755181 -0.7825343111844085 4.227320327558323 23 30 49
0.34532349491326525 -0.9939249894198812 4.432674283192547 114 99 122
-0.5677482964046747 0.23385942955540534 4.206083342565126 144 150 184
0.016867832925937944 -0.8483791858215941 4.040592468971435 67 70 75
-1.0072813102079763 0.8547030364336231 3.5569861448000206 46 48 73
2.009946136185496 0.5736245662330779 6.6547911381873766 105 109 134
1.9670409390827939 1.1347405545651055 5.736934584675558 82 91 120
-0.8934780913867533 0.4260366136298024 3.664200058283923 82 162 231
0.6904318268021549 1.1063049120815376 4.48598837766009 34 63 33
1.7735154271814124 -0.1243412903197606 6.565677883598196 121 123 148
2.2151137855697307 0.8408292428960179 6.493975460303266 75 86 114
5.9222504637385125 -2.936927603779564 11.49785540918953 245 253 255
-0.15041000377657854 0.5397894427311464 3.686542412526506 103 102 118
1.8070217309527552 -1.354691296773805 6.200105926369799 168 178 205
2.5350576628025268 0.08502040426568974 6.800643126904859 24 22 33
0.4339066575844363 -1.1290521783298226 4.572281214231592 29 22 40
2.424214244118254 0.9846584898538552 6.4811350375078005 144 143 161
4.841443353895264 1.3278060467734778 10.156718664039367 61 65 102
0.3226550579970124 1.0482249356927211 4.115657800824586 83 82 88
2.200596574938134 0.7611582296158075 6.4686310584006765 88 101 133
0.5134682061066983 -0.8031845910709415 4.606353017699697 132 130 151
3.3412550043823694 -1.690675139342709 8.000868030756434 46 43 60
2.475151293635008 0.685137060310503 6.632764660844959 86 92 116
2.459175124724498 -0.2579299731433649 6.824407987226531 56 52 69
1.1045115570470079 1.1652392526865398 4.83991422687155 124 133 164
-0.030704289517541544 -0.8506897760912535 3.976903831672199 75 73 86
1.3920858717469167 0.9699142950570943 3.229497250229169 75 76 122
1.6363826815746225 1.08381889075904 5.381182625695956 84 90 126
0.8310759767751192 0.9611557330775817 3.2752771673187047 90 91 93
1.2409918729931786 0.8035604957960664 5.059176240412483 27 30 71
1.9343691087890116 0.7878560897015017 6.601401268501913 110 105 135
1.5089301455069208 0.6754921105039914 5.460422479323309 32 48 74
-0.00416384631674277 -0.2372021373326723 3.9221412547616152 27 26 32
-0.017643283529871705 0.9030103162115917 3.725351334728254 36 47 92
1.3674534232410134 0.6954801813546777 5.3673785916788574 156 158 181
0.9154087482821538 0.7830516560943581 4.84483904015433 127 141 142
2.117539322765311 -1.5163308177622563 6.531561527570239 112 121 138
2.8941805036667394 1.3398677195222393 6.059846804745188 32 54 52
-0.7611520867329401 0.8679827486263231 3.837301133259631 39 36 63
1.8064494211725048 -1.1529894092623743 6.155203959545305 140 155 188
1.9231207482922619 -1.5508268223052777 6.302534485973299 146 163 191
0.5430769414069228 1.0068490365325107 4.528392227181767 104 120 154
0.751184162965931 -0.20526182867571088 4.80687480437315 139 134 156
7.074072410224298 -0.18738748029825497 13.336346927390915 73 97 145
1.3406677684037172 0.528889398424715 5.346078961520622 141 150 181
1.1208884102914898 -0.8529959007125923 5.327108588849543 140 144 182
2.750646662459628 1.3536688368955663 6.120876430236009 53 70 78
-0.23142233619889466 -0.23433572065833969 3.8508049175658914 71 68 87
1.4857812846628389 -0.7378144357114184 5.727454178854011 77 66 100
6.097566767411066 -0.1791130810418883 11.992320230549135 14 20 34
3.0716332548963385 1.3699009378976417 7.121096738075909 67 81 108
1.2985930142148845 -0.36405434942291387 5.396354734348797 122 122 148
1.023588018177849 0.9750972252010783 3.336526590491722 95 114 112
1.2458816926475167 1.071451935322177 4.146096114988747 84 80 115
1.9493544415224007 1.138295936848312 5.5919562767170605 86 101 132
1.4722922026026246 0.680569034762513 5.325264321562722 98 127 171
3.9846395110875474 1.4566720255267305 8.158572446525332 95 96 144
3.0487341360811837 1.2910518303457104 7.1061616288926786 53 53 79
1.7941012848186635 -0.695344492012171 5.438104182576101 94 92 114
0.8310759767751192 0.9611557330775817 3.2752771673187047 90 91 93
1.8037625495145655 0.9985286383285893 3.4111738948939765 128 136 172
1.4857812846628389 -0.7378144357114184 5.727454178854011 77 66 100
0.4133553312437634 -1.0941477958669337 4.517065385234296 82 73 102
-0.599423355566374 0.8664089318760679 3.9425462439595904 41 46 84
1.3849904072560832 1.0170533464682603 3.648564696817184 86 96 132
2.5148599045657667 1.012830778156541 6.468959085567224 47 48 92
1.4393111118247581 -1.0350695840734954 5.7350187192648105 136 136 172
2.3983102797974687 0.4914638767735169 6.6503444449425695 105 102 129
3.9264137923514935 1.5303008805035478 8.039868026347028 137 147 174
1.4807266435429167 -0.712618088747374 5.7287164187802935 53 43 68
0.9721236063506223 0.9773353284368875 3.422059305100165 61 81 72
0.1539083605856964 -0.7965518332080571 4.223550405704469 76 60 87
1.7849917929659744 -1.195236978426446 6.098968435904341 136 154 178
0.9721236063506223 0.9773353284368875 3.422059305100165 61 81 72
1.1753776989573055 0.9942068159905086 3.498624743944879 88 96 109
0.4510045347108866 -1.0321064558049264 4.579789435616447 142 130 150
2.072913772346073 -0.6132129958052998 6.54930066187835 30 27 34
13.154901841485536 3.53532994812646 24.512724250555184 30 31 51
-0.031036330054690312 -0.24185333756675495 3.890091431209032 24 23 28
4.133981008420296 1.1947306914589897 9.230452615710078 167 187 220
6.560018040218522 -2.71239582685244 13.36065710651516 56 51 143
1.2589830322429092 1.0177638348538143 3.6994734467850416 73 73 109
0.6513575709840542 0.9398492640632976 3.10970885865968 136 131 163
2.843570864160402 0.929203035976481 6.965944958678336 143 128 159
0.024077962560474845 0.9135474383486217 3.771707320996582 80 62 86
0.4140365579741571 -0.9654342943300859 4.504860286412847 51 47 61
2.1075902110113387 -1.1041445455764347 6.455570299295053 64 56 80
8.359064957213754 1.7087332653965708 16.11983519958858 14 26 40
1.9502869036850798 -1.320276049151433 6.328893490166419 90 96 132
-0.20085290592146626 -0.45474669111151367 3.863400285602315 38 38 50
0.6904318268021549 1.1063049120815376 4.48598837766009 34 63 33
1.8228150331000668 1.0541492771139114 3.8795293559291553 107 112 131
10.182466380499566 0.7055450742375856 20.55516549992966 130 150 185
0.6513575709840542 0.9398492640632976 3.10970885865968 136 131 163
6.30095623135876 -2.4951173306094603 12.760658200588239 37 38 118
3.94457945948586 0.2918069285199155 9.282535564504272 58 45 65
-0.042757310896573066 -0.2911681148111684 3.9201593438666067 63 59 76
1.871981446723277 1.0665276320824282 3.973068047450628 133 138 180
3.9600068557428445 1.271115015415657 8.84177239339044 93 97 144
4.136338927634099 1.0485781492946946 8.748362296887102 131 151 188
1.1991641777548772 1.1282291971240297 4.981497251769077 80 98 120
-1.1795781764377888 -0.2862811944298813 3.7686500872573503 22 31 62
1.9502869036850798 -1.320276049151433 6.328893490166419 90 96 132
2.653212961734103 1.334462171055618 6.004748995506961 122 153 147
-0.8360036996318688 0.444283965626184 3.6966720640757624 33 50 78
1.4485164925632086 -0.650694177863297 5.687968439786298 69 57 81
1.3920858717469167 0.9699142950570943 3.229497250229169 75 76 122
0.8148092462974167 0.937340827688467 4.666838086064784 63 63 87
-0.9769405392362903 0.5246038697806406 3.5669580188238537 97 126 186
0.6836456912129673 1.1019263379085356 4.424321780181951 123 129 161
-0.80269645745846 0.5001781454179003 3.733072098345352 19 28 67
2.291247320088849 1.1816593908290307 4.811460458146582 82 87 129
-0.46231049996717116 -0.11649514317406306 4.412501156299394 111 106 129
2.994052959412135 0.2206900549661464 7.243994161380504 40 42 55
-0.8360036996318688 0.444283965626184 3.6966720640757624 33 50 78
2.103162242919135 -0.8802669888667746 6.428765646501531 35 31 48
2.5325395505779373 1.1954171458983298 6.549833770139631 70 69 100
1.04362865242233 1.0340889782851264 3.8749077046760547 141 144 179
1.1361416268324658 0.9527223633470153 3.139452574688399 81 87 123
5.77918914081668 -2.8894710500684875 11.495790442312886 254 254 254
9.334068314373804 2.3980577408269435 19.499207911529155 120 144 180
1.45931675066589 0.7055770497188123 5.358568848424594 80 109 153
1.4372048256244716 1.0462585369665693 3.889353965264148 76 78 116
-0.0361808676442558 -0.6478384826004706 3.931897127066259 127 112 131
-0.5262580174826407 0.2519789106290932 4.225765410790681 98 85 111
0.2371431204096847 -0.8373859683612304 4.320422993025373 68 54 79
1.2418760727020615 1.0191238990510558 3.7152590682734794 84 82 122
1.2439171257097104 1.083099026440423 5.106468390656785 90 94 119
2.4988252851097372 -0.531343351839052 6.927651315779425 130 132 157
1.9478164935188742 -1.517095211407343 6.38672985726701 93 96 127
0.9365884256838133 0.17618134247204495 4.926443339748933 121 129 166
-0.7873361632450702 0.6074485311228768 3.7518433552489245 150 166 202
-0.08452838802653834 0.5864416987844921 3.760658670089049 110 108 132
0.4140365579741571 -0.9654342943300859 4.504860286412847 51 47 61
-0.06416948476017768 0.5654741235199956 3.7873010322804617 43 45 57
2.940428518391396 1.3838401448070137 6.309563272603551 53 79 80
